x y z
85941.632 446814.516 -0.546
85948.289 446873.39 -0.014
85928.12700000001 446706.33 -0.28700000000000003
85939.16900000001 446801.38800000004 -0.313
85935.471 446776.119 -0.388
85938.66100000001 446805.494 -0.332
85943.22200000001 446846.417 -0.308
85917.766 446634.737 -0.508
85923.508 446687.706 -0.277
85927.32400000001 446722.602 -0.254
85934.247 446783.83900000004 -0.233
85942.168 446853.776 -0.882
85913.59700000001 446616.098 -1.36
85927.87 446738.123 -0.289
85932.096 446776.732 -0.422
85940.973 446853.907 -0.9590000000000001
85936.714 446820.406 -0.47400000000000003
85941.882 446866.597 -0.436
85918.178 446668.539 -0.74
85925.956 446736.414 -0.251
85930.033 446773.7 -0.402
85930.307 446778.69 -0.279
85934.625 446818.386 -0.47900000000000004
85939.741 446864.95300000004 -0.585
85918.831 446689.454 -0.295
85925.433 446748.442 -0.455
85934.636 446828.78500000003 -0.546
85938.975 446868.139 -0.117
85907.85 446606.969 -0.899
85924.996 446753.817 -0.493
85931.336 446810.056 -0.442
85929.276 446795.14400000003 -0.116
85935.166 446848.14900000003 -0.554
85905.327 446596.768 -0.805
85922.728 446746.44 -0.447
85931.88100000001 446826.86100000003 -0.486
85903.361 446586.70300000004 -0.921
85913.456 446674.968 -0.682
85925.119 446776.675 -0.278
85931.517 446834.20900000003 -0.364
85904.407 446605.38300000003 -0.902
85915.306 446699.917 -0.195
85917.029 446716.83 -0.299
85924.526 446783.19 -0.28400000000000003
85924.42 446785.39900000003 -0.376
85931.532 446849.158 -0.791
85910.13100000001 446667.726 -0.88
85919.482 446749.575 -0.389
85928.06 446825.755 -0.23500000000000001
85932.182 446864.456 -0.23
85908.084 446659.919 -0.549
85910.333 446682.337 -0.292
85923.342 446796.134 -0.323
85929.024 446848.193 -0.865
85924.691 446814.003 -0.502
85928.43400000001 446849.23 -1.227
85895.706 446569.277 -0.925
85901.768 446623.496 -1.141
85902.606 446632.924 -0.38
85908.405 446685.534 -0.255
85913.29400000001 446730.625 -0.17
85920.625 446796.795 -0.42
85927.898 446862.92 -0.331
85928.849 446874.87700000004 -0.20800000000000002
85906.09 446679.46400000004 -0.225
85915.664 446765.112 -0.374
85918.623 446793.305 -0.492
85918.923 446798.653 -0.466
85923.924 446844.814 -0.8140000000000001
85919.238 446806.82300000003 -0.5
85922.346 446836.19800000003 -0.466
85891.60800000001 446570.63 -0.904
85893.63100000001 446591.154 -0.848
85909.168 446728.833 -0.293
85917.028 446800.626 -0.554
85923.802 446862.299 -0.253
85897.751 446636.505 -0.391
85902.279 446678.776 -0.107
85911.283 446759.939 -0.006
85908.153 446735.70300000004 -0.401
85916.003 446806.566 -0.354
85915.717 446807.079 -0.41500000000000004
85919.572 446843.981 -0.878
85917.219 446825.89900000003 -0.334
85920.221 446855.34500000003 -0.982
85887.89600000001 446572.604 -0.876
85888.132 446578.194 -0.852
85896.841 446657.93 -0.719
85903.942 446728.164 -0.218
85901.244 446707.303 -0.398
85907.144 446762.064 -0.422
85909.66900000001 446786.58 0.114
85907.898 446773.955 0.081
85913.701 446828.832 -0.464
85887.864 446600.844 -1.038
85895.755 446673.55700000003 -0.43
85908.829 446796.026 -0.594
85908.196 446793.457 -0.578
85907.924 446793.621 -0.578
85911.486 446827.503 -0.47000000000000003
85912.88100000001 446843.207 -1.041
85914.48 446860.27 -0.47000000000000003
85884.383 446592.004 -0.8310000000000001
85914.644 446867.587 -0.307
85893.711 446680.39400000003 -0.311
85901.989 446757.68700000003 -0.23700000000000002
85903.257 446772.541 -0.162
85906.26 446803.07300000003 -0.46900000000000003
85910.051 446840.392 -0.904
85882.386 446591.648 -0.838
85890.442 446666.795 -0.68
85884.86 446619.169 -0.795
85898.082 446740.477 -0.20400000000000001
85898.00200000001 446741.70300000004 -0.083
85900.149 446766.943 -0.259
85905.279 446816.83900000004 -0.375
85908.697 446851.42100000003 -0.704
85887.76 446661.654 -0.449
85902.445 446801.917 -0.45
85907.356 446849.92600000004 -1.066
85877.438 446577.358 -0.843
85882.474 446625.048 -0.421
85881.67 446620.272 -0.466
85885.401 446657.217 -0.62
85896.103 446760.605 -0.384
85898.498 446786.08900000004 -0.507
85901.656 446818.612 -0.34900000000000003
85898.601 446794.355 -0.621
85899.07800000001 446801.434 -0.308
85898.79400000001 446801.978 -0.306
85896.72 446785.885 -0.486
85901.176 446829.761 -0.341
85904.538 446863.342 -0.341
85903.874 446860.405 -0.419
85873.056 446575.245 -0.846
85875.306 446599.124 -0.669
85887.709 446720.668 -0.327
85891.841 446763.055 -0.271
85898.801 446831.919 -0.511
85900.883 446854.795 -0.46
85900.067 446849.782 -0.40700000000000003
85871.981 446587.305 -0.723
85881.102 446674.907 -0.373
85882.287 446688.57800000004 -0.40900000000000003
85882.54400000001 446693.552 -0.577
85881.649 446687.45 -0.366
85894.941 446820.487 -0.44
85897.615 446850.24 -0.29
85870.346 446593.46400000004 -0.665
85882.773 446713.965 -0.322
85884.08 446732.594 -0.5
85871.95300000001 446621.488 -0.438
85877.452 446676.47500000003 -0.444
85876.704 446672.104 -0.34500000000000003
85875.565 446664.232 -0.34600000000000003
85884.36 446751.672 -0.3
85865.00600000001 446571.282 -0.431
85880.581 446725.26900000003 -0.612
85887.299 446793.61 -0.451
85893.147 446852.689 -0.386
85886.841 446794.34500000003 -0.362
85886.122 446789.933 -0.578
85881.57 446750.496 -0.278
85883.11200000001 446768.577 -0.07100000000000001
85887.945 446819.493 -0.396
85867.48 446625.086 -0.306
85882.886 446778.811 -0.23
85871.428 446671.72500000003 -0.31
85879.154 446750.789 -0.326
85863.514 446600.66000000003 -0.586
85872.655 446692.123 -0.538
85878.66 446753.397 -0.302
85872.531 446696.17100000003 -0.394
85873.91100000001 446712.893 -0.328
85879.336 446773.592 -0.067
85883.844 446822.708 -0.35000000000000003
85859.23700000001 446580.139 -0.635
85865.447 446645.27 -0.28700000000000003
85870.44 446697.848 -0.23500000000000001
85874.933 446745.71400000004 -0.23500000000000001
85872.731 446727.216 -0.486
85870.509 446710.56 -0.179
85880.789 446816.417 -0.387
85881.666 446829.298 -1.17
85882.432 446840.454 -0.711
85858.675 446602.92 -0.454
85870.80500000001 446728.032 -0.464
85882.037 446844.804 -0.28800000000000003
85856.263 446587.066 -0.932
85865.762 446686.076 -0.558
85875.50600000001 446787.51300000004 -0.456
85871.903 446757.474 -0.14300000000000002
85874.019 446782.618 -0.577
85874.404 446789.683 -0.387
85877.687 446825.987 -0.801
85881.712 446869.961 -0.398
85858.457 446634.514 -0.467
85874.778 446808.386 -0.28
85875.39600000001 446818.82300000003 -0.34500000000000003
85857.541 446637.634 -0.45
85861.768 446684.66000000003 -0.5630000000000001
85867.334 446744.89400000003 -0.403
85871.051 446786.26900000003 -0.41000000000000003
85874.091 446820.515 -0.395
85876.304 446846.786 -0.392
85875.655 446843.748 -0.461
85878.268 446873.919 -0.443
85859.495 446681.4 -0.395
85859.32400000001 446683.02400000003 -0.466
85864.729 446742.68 -0.277
85874.205 446848.993 -0.39
85848.195 446581.26900000003 -0.79
85848.189 446584.368 -0.993
85859.137 446703.74700000003 -0.244
85859.742 446713.692 -0.34700000000000003
85864.645 446767.207 0.226
85867.897 446804.996 -0.248
85871.41 446845.367 -0.39
85871.267 446847.88800000004 -0.362
85845.17 446577.128 -0.68
85852.55500000001 446657.199 -0.406
85857.206 446709.414 -0.20800000000000002
85862.561 446769.289 -0.439
85844.668 446587.227 -1.427
85846.774 446611.42100000003 -0.374
85850.852 446657.526 -0.391
85856.364 446718.75200000004 -0.466
85861.052 446771.32 -0.41300000000000003
85867.389 446841.168 -0.391
85869.02100000001 446862.626 -0.362
85854.926 446714.88300000003 -0.381
85854.575 446715.637 -0.39
85862.57400000001 446803.744 -0.255
85862.564 446807.218 -0.372
85862.774 446813.124 -0.312
85868.211 446874.331 -0.419
85849.712 446679.06 -0.435
85857.663 446766.106 -0.029
85859.16100000001 446785.271 -0.34400000000000003
85857.975 446776.623 -0.578
85857.834 446779.102 -0.432
85865.614 446865.837 -0.387
85846.18400000001 446660.093 -0.485
85850.892 446713.969 -0.199
85855.34 446765.683 -0.273
85856.696 446784.146 -0.257
85856.314 446783.472 -0.271
85860.84300000001 446834.576 -0.299
85856.011 446786.635 -0.268
85857.701 446808.77 -0.391
85859.654 446833.579 -0.317
85841.834 446643.4 -0.37
85843.24 446662.232 -0.514
85850.208 446741.124 -0.397
85852.721 446772.778 -0.608
85851.425 446762.748 0.12
85855.128 446809.96 -0.304
85857.52 446839.279 -0.356
85859.537 446864.555 -0.327
85859.807 446870.858 -0.312
85839.565 446653.155 -0.388
85837.91100000001 446639.37200000003 -0.203
85844.426 446714.018 -0.23800000000000002
85849.66 446775.125 -0.518
85852.614 446811.178 -0.334
85857.711 446870.981 -0.247
85843.707 446719.946 -0.138
85837.363 446656.061 -0.339
85842.945 446719.945 -0.14200000000000002
85842.267 446715.58400000003 -0.132
85846.029 446759.576 0.193
85846.511 446773.107 -0.606
85845.878 446770.001 -0.626
85850.986 446830.232 -0.40800000000000003
85853.607 446864.12 -0.28200000000000003
85836.741 446681.11600000004 -0.295
85848.552 446815.096 -1.076
85850.125 446835.813 -0.314
85847.754 446814.47500000003 -0.913
85848.98300000001 446831.016 -0.23900000000000002
85848.845 446833.071 -0.339
85846.454 446810.32 -0.45
85849.015 446842.01300000004 -0.203
85849.689 446853.75800000003 -0.302
85823.924 446572.151 -0.914
85832.10800000001 446665.818 -0.297
85840.955 446767.592 -0.426
85845.62700000001 446824.772 -0.715
85822.241 446568.544 -0.766
85829.885 446661.57 -0.303
85835.678 446728.309 -0.3
85835.586 446730.47500000003 -0.359
85823.734 446603.03 -0.36
85822.436 446592.463 -0.874
85824.761 446621.317 -0.795
85824.262 446619.833 -0.405
85834.034 446732.901 -0.387
85833.64600000001 446734.027 -0.354
85839.355 446802.33 -0.427
85844.582 446865.54000000004 -0.34800000000000003
85843.996 446863.809 -0.46
85826.079 446664.564 -0.263
85843.759 446867.217 -0.304
85839.346 446821.558 -0.761
85837.999 446810.48600000003 -0.924
85842.814 446867.857 -0.276
85838.334 446822.26300000004 -0.633
85841.696 446864.764 -0.255
85824.128 446669.086 -0.539
85831.893 446761.19800000003 -0.535
85836.448 446821.678 -0.593
85839.099 446855.218 -0.216
85833.102 446791.694 -0.291
85828.976 446751.243 0.126
85832.545 446795.552 -0.359
85832.088 446794.87 -0.377
85829.433 446769.532 -0.075
85834.273 446829.091 -0.28700000000000003
85813.296 446593.183 -0.452
85825.176 446732.376 -0.362
85827.714 446766.044 -0.47900000000000004
85827.89 446772.041 -0.313
85832.462 446826.793 -0.28500000000000003
85827.507 446774.188 -0.242
85825.043 446753.875 -0.41500000000000004
85828.98 446802.04600000003 -0.383
85833.75200000001 446860.798 -0.417
85814.662 446644.517 -0.485
85827.729 446803.14900000003 -0.555
85831.21 446847.04000000004 -0.382
85811.994 446628.958 -0.403
85815.567 446674.289 -0.665
85815.445 446676.722 -0.27
85822.261 446758.016 -0.5630000000000001
85822.67 446765.445 -0.452
85824.45300000001 446789.181 -0.309
85823.244 446788.229 -0.306
85803.68000000001 446565.523 -1.059
85810.623 446649.348 -0.399
85816.264 446722.67600000004 -0.23900000000000002
85819.595 446764.349 -0.403
85823.77100000001 446816.11 -0.5690000000000001
85821.38100000001 446792.31200000003 -0.341
85823.653 446822.049 -0.369
85826.899 446862.532 -0.27
85826.41100000001 446860.903 -0.279
85806.187 446628.759 -0.605
85814.726 446731.304 -0.234
85817.144 446763.968 -0.47600000000000003
85824.153 446848.571 -0.47800000000000004
85807.101 446652.318 -0.371
85809.772 446687.05 -0.14400000000000002
85808.273 446673.764 -0.376
85809.028 446685.981 -0.22
85810.379 446704.603 -0.232
85808.913 446691.256 -0.271
85817.319 446792.115 -0.391
85811.34 446726.929 -0.379
85817.125 446797.696 -0.452
85804.634 446658.449 -0.47900000000000004
85810.371 446729.18200000003 -0.225
85812.86200000001 446762.248 -0.398
85814.954 446789.518 -0.338
85812.724 446767.23600000003 -0.383
85812.255 446765.17600000004 -0.368
85811.753 446762.713 -0.396
85806.247 446702.088 -0.258
85807.882 446725.135 -0.356
85813.015 446789.071 -0.355
85815.625 446823.985 -0.375
85801.404 446659.992 -0.577
85808.266 446747.468 -0.427
85808.255 446751.018 -0.449
85800.441 446663.718 -0.466
85795.942 446613.902 -0.216
85793.10800000001 446584.606 -0.466
85796.088 446622.599 -0.41500000000000004
85791.924 446578.597 -1.043
85801.245 446689.468 -0.354
85806.367 446753.36 -0.47400000000000003
85809.067 446789.112 -0.42
85803.171 446724.946 -0.267
85802.657 446722.074 -0.332
85807.19 446777.494 -0.231
85804.197 446745.92600000004 -0.004
85802.579 446730.243 -0.262
85800.469 446708.18 -0.182
85797.16100000001 446673.39 -0.314
85801.34300000001 446725.457 -0.225
85806.205 446785.933 -0.302
85808.928 446821.658 -0.262
85789.023 446593.25 -0.49
85796.26 446681.059 -0.395
85796.693 446689.781 -0.38
85798.393 446712.18200000003 -0.166
85796.791 446696.357 -0.443
85797.984 446713.107 -0.201
85786.52500000001 446585.188 -0.465
85794.891 446684.278 -0.438
85794.89600000001 446687.379 -0.47400000000000003
85797.721 446724.037 -0.222
85800.714 446763.27 -0.136
85802.61 446789.876 -0.312
85804.535 446815.538 -0.248
85784.302 446584.18700000003 -0.427
85807.53600000001 446856.164 -0.162
85797.172 446740.398 -0.369
85798.11 446753.651 -0.359
85796.852 446742.781 -0.263
85794.764 446722.76 -0.231
85799.868 446785.117 -0.418
85801.654 446809.183 -0.32
85803.55500000001 446835.178 -0.296
85785.469 446629.512 -0.436
85784.745 446625.882 -0.5760000000000001
85803.026 446840.408 -0.41300000000000003
85800.546 446815.036 -0.274
85791.448 446714.499 -0.252
85788.992 446689.525 -0.151
85790.391 446708.222 -0.318
85793.776 446750.548 -0.336
85792.41500000001 446739.696 -0.218
85796.686 446793.132 -0.983
85795.859 446787.118 -0.289
85798.056 446815.972 -0.339
85799.795 446839.596 -0.555
85796.601 446806.64400000003 -0.32
85792.072 446758.083 -0.326
85791.606 446755.761 -0.368
85786.16 446697.083 -0.218
85798.696 446850.088 -0.338
85782.779 446671.172 -0.32
85778.16500000001 446624.457 -0.544
85780.72 446657.22500000003 -0.44
85796.278 446838.754 -0.637
85797.178 446852.05700000003 -0.319
85790.516 446780.395 -0.378
85792.304 446803.107 -0.583
85785.528 446729.97500000003 -0.256
85784.731 446724.733 -0.322
85792.177 446812.003 -0.292
85791.081 446803.903 -0.34800000000000003
85792.602 446825.509 -0.322
85774.334 446622.134 -0.447
85779.211 446680.57 -0.032
85772.386 446608.495 -0.201
85795.784 446874.778 -0.229
85772.257 446613.478 -0.458
85794.444 446866.082 -0.275
85793.893 446862.811 -0.297
85790.709 446831.243 -0.487
85793.272 446863.559 -0.32
85770.82 446615.49100000004 -0.628
85793.149 446869.889 -0.229
85773.246 446650.487 -0.643
85773.062 446652.74100000004 -0.487
85774.601 446673.603 -0.252
85772 446648.39400000003 -0.595
85771.815 446652.042 -0.517
85774.933 446689.98600000003 -0.313
85778.16100000001 446729.454 -0.40800000000000003
85773.464 446681.43 -0.38
85780.886 446766.506 -0.202
85782.394 446787.201 -1.01
85784.284 446810.98 -0.303
85783.776 446808.794 -0.28700000000000003
85780.50600000001 446777.099 -0.429
85779.37700000001 446768.265 -0.189
85775.414 446728.059 -0.272
85786.96 446860.287 -0.277
85785.234 446845.617 -0.197
85763 446603.53 -0.225
85786.16900000001 446863.364 -0.231
85766.553 446649.886 -0.491
85786.466 446873.222 -0.34
85785.417 446865.071 -0.214
85784.6 446859.37700000004 -0.314
85761.585 446609.664 -0.502
85760.48700000001 446601.523 -0.31
85761.93000000001 446621.162 -0.25
85766.43000000001 446673.829 -0.253
85763.695 446647.901 -0.499
85765.485 446671.284 -0.353
85773.171 446758.51300000004 -0.28400000000000003
85768.05900000001 446706.683 -0.363
85763.66500000001 446661.968 -0.279
85762.04400000001 446647.971 -0.516
85771.115 446749.485 -0.367
85770.504 446746.52 -0.41000000000000003
85771.462 446760.177 -0.296
85771.667 446766.406 -0.20600000000000002
85772.11 446775.316 -0.269
85772.316 446781.419 -0.686
85774.6 446809.015 -0.192
85770.562 446769.329 -0.314
85771.209 446780.26900000003 -0.667
85773.48 446807.895 -0.20400000000000001
85775.85800000001 446836.39 -0.108
85772.582 446804.89400000003 -0.299
85775.691 446842.02400000003 -0.358
85776.73 446857.065 -0.383
85753.042 446603.126 -0.295
85755.379 446632.038 -0.329
85753.355 446614.522 -0.444
85752.537 446609.65 -0.559
85758.201 446673.325 -0.399
85775.623 446866.27 -0.332
85773.664 446853.462 -0.308
85773.757 446857.794 -0.335
85770.705 446828.954 -0.509
85746.65000000001 446571.691 -0.394
85748.447 446594.987 -0.245
85751.238 446632.246 -0.362
85758.027 446708.36600000004 -0.13
85759.91900000001 446732.07300000003 -0.244
85759.895 446735.109 -0.23500000000000001
85764.89600000001 446791.806 -0.522
85762.532 446770.386 -0.169
85761.66100000001 446765.308 -0.20700000000000002
85762.073 446773.515 -0.192
85763.259 446790.011 -0.609
85757.21800000001 446729.636 -0.337
85763.418 446799.692 -0.263
85763.409 446803.306 -0.243
85764.32800000001 446816.259 -0.434
85760.207 446775.549 -0.177
85750.387 446674.55 -0.294
85752.947 446705.473 -0.257
85754.99 446730.387 -0.114
85757.863 446764.963 -0.292
85758.884 446779.771 0.008
85765.029 446849.653 -0.322
85742.34 446608.337 -0.427
85744.424 446634.47500000003 -0.6
85752.618 446729.357 -0.117
85754.88 446756.884 -0.157
85761.404 446833.039 -0.20500000000000002
85757.951 446799.99100000004 -0.331
85753.561 446756.554 -0.099
85760.641 446835.36600000004 -0.261
85735.416 446566.944 -0.41400000000000003
85741.947 446641.208 -0.427
85737.808 446606.299 -0.464
85745.59300000001 446692.098 -0.265
85747.861 446719.495 -0.05
85739.932 446638.68 -0.504
85734.412 446585.977 -0.262
85735.788 446604.503 -0.502
85758.819 446857.697 -0.332
85744.345 446703.69 -0.009000000000000001
85743.066 446694.325 -0.333
85736.645 446634.485 -0.623
85734.982 446622.811 -0.276
85729.442 446566.86600000004 -0.432
85751.12 446804.662 -0.482
85750.87 446805.363 -0.468
85749.447 446794.69 -0.33
85730.18400000001 446589.78 -0.342
85752.113 446832.319 -0.263
85754.084 446856.875 -0.453
85732.174 446623.324 -0.328
85755.005 446873.51900000003 -0.392
85748.474 446807.143 -0.449
85752.314 446850.972 -0.389
85751.37 446844.381 -0.278
85751.086 446845.067 -0.293
85751.351 446852.017 -0.444
85728.031 446603.53500000003 -0.41000000000000003
85739.938 446734.67 -0.405
85745.952 446803.402 -0.41600000000000004
85750.00600000001 446851.018 -0.434
85725.62 446590.765 -0.318
85749.673 446853.854 -0.464
85747.024 446829.03 -0.389
85745.895 446820.771 -0.25
85744.931 446814.185 -0.427
85747.698 446846.955 -0.34500000000000003
85749.766 446872.961 -0.333
85725.391 446612.619 -0.403
85735.09700000001 446725.452 -0.447
85740.299 446784.843 -0.211
85734.00600000001 446725.083 -0.442
85736.951 446759.684 -0.247
85724.432 446628.809 -0.533
85723.466 446622.314 -0.388
85729.505 446691.31200000003 -0.431
85732.363 446726.243 -0.49
85735.70300000001 446766.023 -0.71
85731.963 446730.266 -0.377
85733.456 446750.275 -0.20800000000000002
85730.704 446724.466 -0.529
85733.557 446757.707 -0.32
85730.026 446723.027 -0.5700000000000001
85732.47200000001 446752.74 -0.29
85732.342 446758.727 -0.20800000000000002
85734.97 446791.205 -0.233
85734.664 446792.261 -0.137
85733.745 446786.70900000003 -0.279
85738.50600000001 446841.256 -0.209
85738.276 446842.65 -0.257
85715 446592.634 -0.606
85735.194 446815.793 -0.266
85728.672 446747.928 -0.191
85728.204 446746.199 -0.14400000000000002
85728.037 446748.3 -0.231
85730.739 446781.317 -0.193
85731.821 446796.927 -0.329
85735.672 446842.852 -0.181
85715.48300000001 446625.909 -0.508
85716.751 446643.846 -0.159
85723.35800000001 446718.982 -0.485
85711.47 446595.62700000004 -0.43
85733.907 446843.251 -0.161
85732.375 446829.82 -0.268
85732.509 446835.37200000003 -0.257
85715.7 446654.246 -0.369
85722.344 446730.34 -0.164
85726.08 446775.23 -0.547
85727.93400000001 446798.909 -0.34800000000000003
85726.321 446785.449 -0.324
85730.762 446836.917 -0.177
85732.35800000001 446857.30700000003 -0.242
85730.897 446843.879 -0.19
85725.38 446786.95900000003 -0.229
85720.882 446741.346 -0.257
85721.969 446756.547 -0.289
85722.99 446771.56 -1.1300000000000001
85729.764 446853.294 -0.343
85707.639 446614.481 -0.383
85724.304 446801.57800000004 -0.308
85728.528 446850.579 -0.40900000000000003
85725.111 446816.463 -0.222
85719.141 446754.57300000003 -0.263
85715.686 446719.53500000003 -0.437
85714.955 446715.18700000003 -0.483
85719.726 446775.053 -0.262
85724.702 446832.816 -0.148
85725.244 446842.917 -0.187
85726.603 446861.628 -0.366
85724.91 446846.431 -0.101
85725.46 446855.083 -0.265
85725.68000000001 446860.689 -0.352
85722.855 446833.092 -0.201
85715.50200000001 446756.451 -0.559
85717.5 446780.669 -0.336
85719.79400000001 446809.42100000003 -0.41600000000000004
85718.989 446805.303 -0.328
85716.257 446780.413 -0.341
85718.09700000001 446807.882 -0.271
85720.282 446834.8 -0.249
85717.89600000001 446811.74700000003 0.022
85716.288 446796.973 -0.28600000000000003
85705.645 446688.178 -0.157
85713.083 446772.503 -0.21
85715.92 446806.87700000004 -0.40900000000000003
85721.223 446868.76300000004 -0.33
85700.063 446639.411 -0.388
85706.546 446714.293 -0.47400000000000003
85709.719 446752.73 -0.381
85708.053 446737.549 -0.154
85705.891 446717.376 -0.394
85695.888 446611.72000000003 -0.447
85704.53600000001 446711.227 -0.502
85707.282 446744.88 -0.28800000000000003
85711.85 446799.032 -0.273
85717.657 446866.721 -0.184
85703.986 446718.385 -0.35000000000000003
85700.73 446686.721 -0.116
85709.13100000001 446781.931 -0.068
85707.296 446765.82800000004 -0.788
85702.32 446714.89400000003 -0.382
85703.865 446734.494 -0.159
85704.236 446742.03500000003 -0.28600000000000003
85704.795 446751.594 -0.536
85706.44 446776.238 -0.323
85704.031 446755.12200000003 -1.196
85704.804 446767.949 -0.341
85711.069 446840.294 -0.34500000000000003
85713.749 446872.516 -0.293
85712.227 446859.028 -0.16
85687.144 446585.73 -0.419
85686.792 446585.348 -0.41600000000000004
85698.444 446715.792 -0.41400000000000003
85695.123 446682.53 -0.146
85697.807 446715.566 -0.308
85697.914 446720.745 -0.154
85703.547 446786.48600000003 -0.088
85707.753 446836.528 -0.305
85686.293 446602.65 -0.258
85685.894 446602.678 -0.28200000000000003
85692.37 446677.434 -0.28300000000000003
85698.673 446749.849 -0.64
85685.77100000001 446611.583 -0.558
85687.86 446637.647 -0.359
85688.587 446649.28500000003 -0.323
85692.54000000001 446696.197 0.027
85687.931 446649.782 -0.34500000000000003
85691.561 446694.064 -0.014
85698.832 446778.213 -0.17400000000000002
85697.988 446773.707 -0.37
85702.16 446822.84 -0.139
85700.312 446806.351 -0.092
85693.438 446735.01 -0.17
85695.742 446763.666 -0.381
85692.522 446731.146 -0.10400000000000001
85695.177 446773.191 -0.39
85696.639 446794.06 -0.268
85700.25200000001 446838.554 -0.189
85699.542 446835.456 -0.201
85698.48700000001 446827.56200000003 -0.256
85696.30900000001 446806.58900000004 -0.032
85691.916 446762.12700000004 -0.312
85691.88 446765.597 -0.23500000000000001
85690.908 446758.885 -0.7020000000000001
85689.057 446741.962 -0.279
85691.079 446768.77400000003 -0.272
85692.242 446786.865 -0.248
85680.546 446663.945 -0.272
85677.656 446636.26 -0.378
85673.619 446595.439 -0.305
85698.19900000001 446872.148 -0.358
85672.955 446594.501 -0.265
85693.901 446831.985 -0.329
85672.50600000001 446596.581 -0.327
85673.226 446608.802 -0.612
85696.306 446871.27400000003 -0.234
85684.345 446745.64900000003 -0.873
85688.819 446799.462 -0.244
85687.443 446788.371 -0.355
85685.88100000001 446773.757 -0.17300000000000001
85683.984 446756.109 -0.739
85683.947 446758.95 -0.323
85676.057 446675.495 -0.138
85680.331 446730.775 -0.301
85682.678 446761.62 -0.202
85687.686 446821.873 -0.23700000000000002
85691.278 446869.79000000004 -0.163
85666.72200000001 446598.509 -0.402
85663.368 446564.61100000003 -0.54
85683.634 446794.427 -0.377
85682.155 446781.563 -0.244
85685.579 446823.319 -0.243
85685.488 446826.33900000004 -0.274
85664.633 446595.605 -0.3
85670.68400000001 446666.798 -0.40800000000000003
85678.182 446754.77400000003 -0.545
85683.619 446819.67600000004 -0.214
85663.589 446598.397 -0.405
85666.30500000001 446635.055 -0.358
85667.78600000001 446657.279 -0.153
85671.128 446697.50800000003 -0.524
85668.635 446672.675 -0.139
85673.514 446730.675 -0.28500000000000003
85678.283 446787.99100000004 -0.28200000000000003
85683.11 446846.146 -0.25
85656.806 446555.10000000003 -0.262
85668.046 446683.919 -0.112
85666.051 446666.615 -0.41500000000000004
85670.799 446722.895 -0.177
85674.25200000001 446764.017 -0.342
85664.77100000001 446660.61 -0.421
85659.441 446604.056 -0.497
85658.624 446598.387 -0.495
85667.982 446705.871 -0.192
85669.78 446729.776 -0.318
85680.431 446852.596 -0.148
85680.611 446859.425 -0.08700000000000001
85668.20300000001 446721.8 -0.17
85671.45 446762.271 -0.31
85679.73300000001 446857.598 -0.075
85678.395 446846.14 -0.217
85679.202 446858.17600000004 -0.067
85676.145 446827.074 -0.22
85672.187 446785.653 -0.419
85674.465 446814.235 -0.059000000000000004
85678.41900000001 446862.06200000003 -0.079
85652.30900000001 446571.669 -0.4
85662.829 446693.237 -0.521
85666.325 446736.206 -0.65
85670.755 446789.891 -0.305
85652.457 446590.424 -0.421
85658.66900000001 446662.974 -0.336
85658.901 446668.08 0.13
85655.114 446629.386 -0.439
85650.807 446584.74100000004 -0.508
85656.831 446654.842 -0.261
85653.694 446622.528 -0.384
85658.761 446682.871 0.074
85668.124 446791.958 -0.135
85667.231 446787.043 -0.392
85672.058 446844.887 -0.228
85644.46800000001 446537.781 -0.444
85649.03600000001 446592.545 -0.498
85648.708 446592.00800000003 -0.482
85673.254 446870.911 -0.20700000000000002
85667.84 446813.597 -0.181
85668.61200000001 446825.588 -0.169
85667.75200000001 446819.64900000003 -0.231
85670.594 446855.00800000003 -0.068
85650.772 446634.33400000003 -0.326
85661.479 446758.526 -0.301
85668.49 446841.45 -0.202
85646.958 446601.69800000003 -0.495
85645.854 446593.373 -0.546
85653.539 446682.12700000004 -0.23
85657.814 446733.33 -0.723
85662.144 446784.658 -0.289
85659.128 446753.849 -0.23600000000000002
85659.466 446760.145 -0.17500000000000002
85660.981 446780.646 -0.34500000000000003
85661.452 446789.946 0.004
85667.98 446867.346 -0.197
85640.566 446561.625 -0.148
85651.537 446688.25800000003 -0.444
85656.436 446747.102 -0.328
85664.591 446841.981 -0.215
85666.71800000001 446869.162 -0.20400000000000001
85636.899 446536.452 -0.655
85664.223 446847.625 -0.22
85664.03600000001 446848.923 -0.222
85662.727 446837.474 -0.17500000000000002
85665.004 446865.99 -0.181
85653.438 446741.349 -1.173
85653.438 446745.679 -0.34900000000000003
85659.886 446822.039 -0.161
85663.346 446871.856 -0.209
85635.795 446564.583 -0.663
85638.783 446600.956 -0.34
85646.22 446686.667 -0.497
85651.917 446753.445 -0.246
85649.30500000001 446728.055 -0.527
85656.254 446809.54000000004 -0.163
85653.139 446779.142 -0.241
85659.609 446855.976 -0.222
85632.55500000001 446555.079 -0.5690000000000001
85638.541 446626.197 -0.41100000000000003
85637.618 446619.52 -0.511
85632.176 446561.517 -0.487
85657.303 446847.882 -0.182
85657.827 446857.184 -0.153
85657.719 446864.068 -0.124
85629.504 446550.658 -0.613
85645.67 446739.495 -0.9420000000000001
85648.29000000001 446771.969 -0.229
85643.883 446727.31200000003 -0.709
85645.124 446744.862 -0.128
85647.80500000001 446778.06 -0.244
85637.992 446671.757 -0.14200000000000002
85637.861 446673.617 -0.163
85632.168 446619.005 -0.34700000000000003
85632.903 446631.657 -0.513
85627.516 446577.038 -0.766
85627.696 446583.288 -0.675
85644.874 446783.344 0.077
85638.339 446718.305 -0.241
85637.827 446715.757 -0.31
85640.367 446747.988 -0.217
85640.183 446750.789 -0.179
85638.923 446741.602 -0.136
85638.188 446737.299 -0.508
85632.424 446681.232 -0.47200000000000003
85628.395 446640.447 -0.372
85630.689 446668.756 -0.105
85621.436 446570.71 -0.6900000000000001
85642.53 446810.07800000004 -0.166
85641.834 446806.63800000004 -0.211
85645.221 446848.542 -0.157
85644.653 446846.795 -0.188
85639.725 446796.313 0.006
85639.463 446795.93 0.012
85639.773 446802.433 -0.157
85640.083 446809.253 -0.292
85638.68000000001 446797.588 -0.059000000000000004
85638.132 446795.201 0.025
85642.856 446851.16500000004 -0.216
85620.742 446610.226 -0.632
85623.307 446642.772 -0.314
85631.072 446731.995 -1.222
85631.623 446741.113 -0.232
85631.069 446738.677 -0.088
85636.904 446805.542 -0.224
85639.624 446838.191 -0.261
85612.101 446538.701 -0.342
85611.767 446537.78 -0.369
85615.476 446581.662 -0.40800000000000003
85641.577 446872.402 -0.258
85626.315 446707.054 -0.325
85631.885 446771.541 -0.279
85637.306 446834.96 -0.21
85639.512 446863.212 -0.201
85640.03 446872.24100000004 -0.259
85639.214 446865.722 -0.274
85638.435 446859.869 -0.258
85635.594 446832.38 -0.24
85636.887 446849.605 -0.28600000000000003
85637.831 446862.68 -0.23
85609.241 446554.624 -0.266
85622.511 446701.629 -0.163
85628.392 446769.451 -0.126
85637.48700000001 446871.75800000003 -0.281
85616.795 446649.895 -0.28700000000000003
85625.128 446743.16500000004 -0.259
85630.82 446807.875 -0.244
85627.88100000001 446779.293 -0.048
85629.885 446803.468 -0.23500000000000001
85628.675 446792.84500000003 -0.02
85626.729 446775.229 -0.145
85610.984 446610.556 -0.562
85620.341 446714.373 -0.319
85630.643 446828.015 -0.278
85602.96800000001 446532.945 -0.20500000000000002
85614.551 446661.386 -0.14200000000000002
85623.081 446757.004 -0.16
85629.925 446834.007 -0.306
85633.195 446871.949 -0.335
85603.141 446552.338 -0.317
85613.371 446664.34500000003 -0.224
85617.639 446712.681 -0.26
85620.012 446740.733 -0.248
85619.136 446734.105 -0.107
85621.095 446758.506 -0.15
85630.421 446861.58900000004 -0.378
85629.683 446858.537 -0.355
85612.91 446681.498 -0.356
85620.171 446762.555 -0.169
85627.706 446846.59 -0.363
85607.546 446633.756 -0.078
85608.563 446648.216 0.017
85606.68400000001 446631.487 -0.037
85627.308 446855.028 -0.325
85621.356 446795.723 -0.17500000000000002
85621.265 446798.191 -0.20500000000000002
85627.385 446865.865 -0.308
85627.823 446874.94800000003 -0.23500000000000001
85612.084 446715.404 -0.619
85619.657 446799.167 -0.232
85625.289 446861.679 -0.273
85621.095 446820.945 -0.267
85625.439 446869.433 -0.258
85605.463 446660.143 0.036000000000000004
85596.71 446571.805 -0.295
85606.206 446674.433 -0.358
85614.298 446762.977 -0.274
85619.746 446824.005 -0.251
85593.191 446546.848 -0.135
85607.789 446703.833 -0.371
85612.332 446755.52400000003 -0.133
85619.16900000001 446831.458 -0.243
85592.836 446557.42100000003 -0.217
85592.306 446556.11100000003 -0.245
85621.289 446863.552 -0.20500000000000002
85591.393 446552.121 -0.162
85601.264 446657.87700000004 -0.127
85598.558 446633.208 -0.447
85600.363 446655.678 -0.131
85610.051 446760.237 -0.244
85619.431 446862.155 -0.203
85603.149 446693.541 -0.215
85615.48700000001 446831.158 -0.299
85616.992 446850.44800000003 -0.214
85592.476 446596.468 -0.186
85599.474 446672.47500000003 -0.401
85587.855 446555.202 -0.125
85587.825 446558.145 -0.161
85612.43000000001 446819.09 -0.279
85606.484 446765.574 -0.064
85586.18000000001 446556.07 -0.026000000000000002
85587.754 446582.017 -0.261
85593.007 446640.843 -0.319
85584.625 446558.01 -0.006
85590.584 446622.221 0.067
85583.797 446555.467 -0.06
85606.91100000001 446799.898 -0.194
85606.292 446796.211 -0.154
85604.991 446786.701 0.007
85607.314 446815.277 -0.213
85606.74 446814.34500000003 -0.223
85603.973 446790.141 -0.04
85602.66100000001 446780.60000000003 0.075
85597.178 446727.697 -0.209
85590.162 446658.954 -0.388
85579.708 446554.749 -0.245
85601.598 446789.488 -0.016
85595.835 446734.103 -0.151
85576.979 446541.52400000003 -0.40700000000000003
85582.138 446598.74100000004 -0.188
85594.125 446725.719 -0.219
85597.241 446761.57 -0.044
85599.663 446789.67600000004 -0.016
85605.534 446853.152 -0.293
85604.776 446848.793 -0.303
85587.349 446671.097 -0.399
85592.975 446731.641 -0.166
85601.859 446825.023 -0.261
85602.772 446837.846 -0.28
85604.773 446862.26300000004 -0.399
85588.755 446699.355 -0.25
85597.869 446796.27400000003 -0.226
85604.782 446870.446 -0.386
85579.401 446612.484 -0.265
85593.788 446762.68200000003 0.068
85597.538 446804.833 -0.321
85600.464 446838.117 -0.398
85602.864 446865.662 -0.336
85582.959 446667.481 -0.274
85591.615 446758.61600000004 0.015
85593.841 446784.363 -0.029
85596.65000000001 446815.978 -0.392
85599.628 446850.31 -0.28500000000000003
85584.104 446693.538 -0.357
85596.458 446823.036 -0.362
85571.245 446568.376 -0.456
85583.77500000001 446699.308 -0.324
85589.772 446763.056 -0.038
85590.85 446777.353 -0.045
85594.903 446821.691 -0.258
85597.23700000001 446848.82 -0.242
85569.907 446573.11600000004 -0.495
85570.643 446583.61 -0.248
85580.404 446685.498 -0.246
85589.534 446780.908 -0.06
85592.955 446819.054 -0.20600000000000002
85593.562 446829.068 -0.18
85596.399 446862.387 -0.234
85574.301 446640.272 -0.259
85584.21 446744.34500000003 -0.164
85587.73 446783.121 -0.082
85593.173 446840.349 -0.137
85590.815 446819.64 -0.109
85594.66500000001 446861.813 -0.136
85593.868 446857.454 -0.193
85592.07800000001 446842.80700000003 -0.082
85589.017 446815.938 0.021
85565.585 446581.215 -0.47000000000000003
85566.163 446591.06200000003 -0.279
85587.163 446808.702 -0.296
85576.008 446701.029 -1.231
85568.046 446624.891 -0.19
85580.407 446754.892 -0.133
85576.406 446718.039 -0.256
85569.73 446654.761 -0.401
85564.48300000001 446606.371 -0.012
85583.727 446806.783 -0.781
85577.93400000001 446755.944 -0.074
85577.355 446752.904 -0.108
85570.696 446689.971 -0.257
85581.692 446806.661 -1.01
85581.49 446807.451 -0.998
85587.736 446872.918 -0.262
85575.58 446756.281 -0.064
85573.99 446744.795 -0.192
85571.277 446721.441 -0.191
85569.63 446708.81200000003 -0.5710000000000001
85566.941 446685.359 -0.335
85578.569 446806.925 -1.24
85561.927 446644.634 -0.215
85558.153 446610.577 -0.196
85555.406 446587.02400000003 -0.482
85582.812 446866.378 -0.23900000000000002
85561.595 446656.189 -0.25
85557.605 446620.79000000004 0.004
85561.083 446659.179 -0.243
85565.565 446706.909 -0.665
85579.736 446856.715 -0.093
85555.757 446618.947 -0.091
85558.142 446645.32800000004 -0.133
85567.263 446739.161 -0.22
85579.59 446865.244 -0.20500000000000002
85554.327 446615.48600000003 -0.309
85561.908 446694.842 -0.492
85573.565 446813.82 0.047
85577.625 446857.985 -0.157
85555.925 446643.51900000003 -0.242
85558.711 446674.598 -0.324
85567.687 446766.373 -0.002
85574.974 446841.118 -0.083
85577.954 446873.795 -0.242
85555.503 446651.88800000004 -0.14400000000000002
85559.541 446695.248 -0.303
85563.405 446736.636 -0.11900000000000001
85572.796 446832.642 -0.106
85549.873 446606.572 -0.516
85560.96800000001 446720.504 -0.009000000000000001
85569.069 446805.196 -1.201
85563.016 446749.424 -0.052000000000000005
85551.44900000001 446638.12700000004 -0.002
85558.264 446708.572 -0.121
85560.817 446737.029 -0.18
85547.267 446606.961 -0.615
85545.5 446592.487 -0.8250000000000001
85548.47200000001 446625.237 -0.299
85559.369 446736.357 -0.17400000000000002
85566.255 446808.455 -1.17
85542.454 446574.033 -0.705
85562.486 446779.667 -0.098
85546.671 446631.38800000004 -0.28400000000000003
85550.633 446673.08900000004 -0.098
85550.228 446672.404 -0.224
85553.337 446706.42 -0.132
85556.893 446744.82800000004 -0.098
85558.84 446767.255 -0.047
85545.234 446637.783 -0.167
85557.524 446762.956 -0.038
85567.293 446866.929 -0.137
85556.784 446763.571 -0.17
85561.69 446815.50800000003 -0.247
85538.966 446592.199 -1.055
85554.124 446744.608 0.17400000000000002
85560.637 446812.249 -1.225
85561.336 446821.892 -0.2
85565.767 446868.81200000003 -0.169
85537.93000000001 446595.302 -1.073
85561.04000000001 446829.667 -0.057
85534.069 446565.177 -0.738
85551.993 446744.84500000003 0.12
85559.156 446819.662 -0.213
85538.014 446612.47500000003 -0.804
85553.492 446768.384 -0.078
85553.897 446776.104 -0.09
85558.248 446822.006 -0.187
85552.12700000001 446765.637 -0.075
85549.48700000001 446743.384 -0.065
85539.242 446646.32300000003 -0.46
85551.783 446776.074 -0.066
85542.178 446686.30700000003 -0.164
85541.71800000001 446686.482 -0.154
85536.55 446640.143 -0.653
85538.492 446667.169 -0.031
85538.618 446671.842 -0.148
85548.59 446775.897 -0.058
85536.673 446662.264 0.004
85546.009 446761.678 -0.09
85539.844 446706.362 -0.325
85536.6 446679.455 -0.162
85525.18400000001 446571.683 -0.775
85537.274 446696.84 -0.17400000000000002
85522.537 446555.576 -0.722
85542.276 446755.402 0.061
85537.96 446716.832 -0.23600000000000002
85533.891 446681.266 -0.124
85521.95300000001 446568.923 -0.802
85525.80500000001 446610.856 -0.738
85519.732 446555.443 -0.8220000000000001
85551.467 446874.46 -0.136
85517.96 446545.059 -0.452
85518.887 446557.15 -0.852
85523.793 446608.906 -0.6990000000000001
85528.166 446655.50200000004 -0.6960000000000001
85535.66 446732.771 -0.266
85546.261 446840.64900000003 -0.145
85549.293 446874.946 -0.274
85533.724 446721.917 -0.188
85547.992 446866.793 -0.314
85524.307 446634.108 -0.6880000000000001
85534.215 446735.62 -0.306
85539.745 446793.332 -0.113
85546.456 446862.958 -0.34700000000000003
85527.909 446680.194 -0.033
85536.692 446770.189 0.042
85542.714 446833.074 -0.293
85514.52100000001 446555.23600000003 -0.854
85533.136 446741.76900000003 -0.20400000000000001
85539.318 446806.418 -0.266
85515.084 446567.454 -0.8250000000000001
85538.501 446802.379 -0.275
85543.37700000001 446854.907 -0.332
85530.371 446726.764 -0.185
85538.00600000001 446806.306 -0.253
85520.725 446636.25 -0.986
85536.84700000001 446799.575 -0.261
85539.384 446828.582 -0.406
85516.156 446599.44 -1.295
85531.352 446752.545 -0.023
85535.295 446794.297 -0.203
85542.261 446866.32 -0.242
85526.47 446710.091 0.171
85530.372 446752.039 -0.033
85536.687 446818.034 -0.343
85519.813 446651.255 -0.778
85530.552 446760.918 -0.11
85540.25200000001 446861.521 -0.327
85528.704 446747.424 -0.295
85535.698 446821.416 -0.358
85522.13 446687.382 -0.14200000000000002
85530.91 446778.547 0.065
85538.13100000001 446853.643 -0.299
85512.611 446600.939 -0.654
85522.293 446700.28500000003 -0.127
85529.32400000001 446773.333 0.097
85538.918 446871.706 -0.17300000000000001
85519.97200000001 446683.773 -0.362
85526.985 446755.87 -0.012
85535.83 446846.96400000004 -0.181
85511.166 446602.04000000004 -0.5730000000000001
85526.614 446759.194 0.04
85534.621 446843.04600000003 -0.17
85517.895 446677.37200000003 -0.467
85532.116 446822.75 -0.28400000000000003
85519.09700000001 446693.65 -0.17500000000000002
85528.155 446788.12700000004 -0.09
85523.345 446744.591 -0.211
85527.606 446790.359 -0.095
85513.537 446656.944 -0.752
85517.921 446703.919 -0.042
85520.735 446735.27400000003 -0.191
85524.78600000001 446778.594 0.046
85524.615 446781.038 0.055
85501.113 446547.10000000003 -0.8210000000000001
85509.457 446634.575 1.151
85516.48 446709.526 -0.10400000000000001
85509.147 446640.318 -0.023
85507.7 446629.445 1.537
85517.914 446738.466 -0.114
85510.681 446668.833 -0.803
85520.557 446774.264 0.028
85518.808 446760.898 0.052000000000000005
85512.057 446697.89 -0.395
85518.964 446776.45300000004 0.098
85512.802 446718.667 -0.14400000000000002
85503.688 446629.898 1.538
85502.533 446621.603 1.7550000000000001
85513.838 446742.205 -0.041
85502.568 446631.178 1.524
85512.304 446738.31200000003 -0.026000000000000002
85513.185 446752.08 -0.134
85508.82800000001 446712.539 -0.018000000000000002
85511.624 446752.257 -0.139
85504.481 446683.059 -0.836
85512.625 446772.068 0.082
85506.319 446711.92100000003 -0.167
85503.23 446684.63 -0.88
85506.696 446724.398 -0.157
85507.66 446739.087 -0.058
85508.685 446753.91000000003 -0.018000000000000002
85506.429 446737.996 -0.101
85504.42 446721.047 -0.007
85503.84 446718.647 -0.084
85505.508 446738.67 -0.11
85506.03 446747.629 -0.037
85507.357 446765.447 0.046
85505.139 446747.489 -0.038
85506.732 446768.113 0.076
85511.144 446817.74 0.064
85502.147 446733.461 -0.212
85511.473 446835.076 -0.279
85513.533 446863.494 -0.216
85512.435 446861.348 -0.492
85509.393 446835.215 -0.211
85508.763 446833.262 -0.249
85511.329 446866.893 -0.587
85506.178 446817.277 -0.13
85505.708 446818.481 -0.274
85500.398 446767.354 -0.12
85507.657 446856.565 -0.601
85505.799 446846.219 -0.525
85506.923 446867.724 -0.618
85505.382 446858.647 -0.545
85504.5 446857.862 -0.53
85503.993 446863.129 -0.579
85500.114 446830.31200000003 -0.394
85501.836 446865.7 -0.587
85506.202 446274.398 -0.8140000000000001
85507.032 446274.836 -0.859
85505.826 446319.417 -0.839
85500.287 446441.58400000003 -0.856
85502.579 446420.033 -0.971
85504.095 446400.29600000003 -0.87
85504.438 446407.01 -0.738
85503.071 446447.059 -0.895
85503.832 446440.827 -0.914
85503.376 446460.355 -0.906
85503.63100000001 446468.70300000004 -0.553
85506.375 446424.378 -1.041
85504.645 446471.789 -0.598
85506.577 446441.799 -0.907
85512.157 446338.506 -1.06
85506.069 446468.71400000004 -0.5710000000000001
85509.206 446417.919 -1.018
85514.515 446321.69 -0.759
85507.704 446465.333 -0.683
85517.481 446278.309 -0.874
85500.85 446614.77 0.5750000000000001
85514.992 446338.531 -1.079
85510.594 446433.147 -1.107
85504.156 446569.971 -0.851
85501.02500000001 446637.68700000003 1.514
85515.594 446363.074 -0.934
85512.293 446434.966 -1.191
85506.902 446547.248 -0.807
85502.779 446633.004 1.625
85516.54400000001 446370.319 -0.982
85502.37700000001 446659.809 -0.72
85503.099 446649.688 1.1400000000000001
85504.064 446636.067 1.489
85503.87 446645.529 1.486
85503.785 446653.337 -0.042
85505.43400000001 446624.314 1.552
85501.191 446716.001 -0.40700000000000003
85518.769 446381.009 -1.05
85523.829 446293.016 -1.1280000000000001
85502.383 446718.082 -0.211
85504.457 446682.5 -0.844
85507.051 446634.712 1.435
85507.848 446625.001 1.5250000000000001
85511.532 446559.653 -0.891
85516.094 446473.238 -0.497
85505.475 446687.53 -0.833
85509.023 446620.67100000003 1.541
85511.526 446579.849 -1.24
85524.637 446333.07300000003 -1.025
85522.967 446371.73600000003 -1.076
85524.35 446349.73600000003 -0.931
85525.14 446338.846 -0.964
85526.188 446324.18700000003 -0.9410000000000001
85524.149 446370.255 -1.087
85527.901 446302.403 -1.052
85524.15000000001 446379.647 -1.07
85514.383 446574.683 -0.794
85515.523 446558.238 -1.027
85511.876 446633.08900000004 0.305
85512.257 446629.678 0.9420000000000001
85521.437 446459.564 -1.103
85521.251 446469.025 -0.686
85517.469 446547.344 -0.603
85526.519 446377.278 -1.058
85524.80900000001 446414.939 -1.163
85517.895 446552.59500000003 -0.761
85523.901 446442.81 -1.156
85514.854 446620.838 0.116
85516.08 446603.989 -0.59
85512.659 446675.092 -0.663
85515.469 446625.32 0.248
85524.973 446448.72500000003 -0.9590000000000001
85524.91500000001 446455.482 -1.145
85518.957 446574.547 -0.844
85515.373 446647.685 -0.9550000000000001
85518.04000000001 446600.995 -1.04
85521.094 446547.678 -0.507
85520.067 446573.427 -0.877
85513.583 446701.598 -0.148
85513.76 446702.876 -0.085
85531.45 446379.75200000004 -1.156
85531.755 446378.7 -1.156
85531.706 446383.906 -1.099
85536.822 446292.912 -0.931
85528.959 446446.561 -1.139
85518.01 446656.735 -0.76
85521.158 446602.379 -0.982
85516.759 446690.373 -0.444
85517.071 446690.809 -0.41000000000000003
85523.932 446568.244 -0.8140000000000001
85519.888 446647.84500000003 -0.833
85519.413 446661.101 -0.6950000000000001
85520.241 446650.601 -0.795
85519.366 446671.333 -0.631
85542.263 446255.876 -1.077
85517.303 446717.77400000003 -0.11900000000000001
85517.221 446724.41500000004 0.145
85519.239 446697.65 0.049
85521.869 446655.64 -0.651
85522.529 446649.25800000003 -0.726
85520.552 446690.424 -0.11800000000000001
85522.017 446667.82800000004 -0.521
85523.69 446641.603 -0.735
85521.569 446684.428 -0.259
85537.80900000001 446395.454 -1.158
85537.831 446400.618 -1.154
85537.671 446410.199 -1.235
85539.867 446376.319 -1.137
85537.566 446423.516 -1.232
85540.507 446374.966 -1.0210000000000001
85537.99 446426.30700000003 -1.2590000000000001
85539.751 446399.245 -1.166
85540.595 446388.195 -1.112
85537.099 446456.157 -1.099
85536.243 446475.777 -0.52
85538.813 446434.441 -1.228
85538.08 446452.376 -1.197
85531.818 446571.447 -0.752
85532.327 446568.581 -0.758
85531.712 446585.593 -0.764
85527.792 446660.566 -0.518
85527.51 446670.364 -0.35100000000000003
85529.313 446642.534 -0.6970000000000001
85525.39 446716.454 -0.079
85540.989 446445.16500000004 -1.336
85534.72 446562.757 -0.751
85534.796 446567.068 -0.8200000000000001
85535.09700000001 446566.688 -0.8290000000000001
85534.889 446576.39900000003 -0.745
85532.981 446616.531 -0.78
85532.854 446623.707 -0.676
85531.654 446648.767 -0.645
85531.285 446659.206 -0.459
85529.22 446700.37700000004 -0.137
85554.604 446258.19 -1
85528.35800000001 446725.094 -0.126
85529.004 446719.161 -0.14200000000000002
85529.51 446715.593 -0.158
85548.163 446394.70900000003 -1.133
85531.8 446684.981 -0.112
85532.713 446674.363 0.14300000000000002
85534.551 446647.795 -0.577
85534.148 446658.979 -0.321
85530.264 446730.447 -0.167
85531.715 446709.09 -0.167
85532.316 446703.787 -0.124
85534.045 446678.804 -0.124
85533.427 446694.585 -0.088
85559.067 446252.92600000004 -0.976
85532.174 446727.83900000004 -0.161
85535.063 446681.89400000003 -0.056
85533.46 446714.623 0.03
85552.268 446393.398 -1.087
85550.95 446421.54600000003 -1.23
85551.637 446413.689 -1.213
85548.304 446477.16500000004 -0.682
85542.711 446580.989 -0.716
85541.527 446607.294 -0.788
85543.785 446572.652 -0.685
85539.336 446656.541 -0.096
85541.174 446630.093 -0.218
85538.57 446680.619 -0.146
85539.832 446661.871 -0.007
85538.923 446682.375 -0.155
85537.714 446708.509 -0.189
85538.743 446699.283 -0.07100000000000001
85538.261 446713.136 -0.258
85539.41500000001 446698.484 -0.045
85538.349 446723.212 -0.228
85539.186 446713.694 -0.262
85544.32800000001 446629.346 -0.309
85557.63100000001 446405.69 -1.2
85553.764 446477.37700000004 -1.5190000000000001
85554.03600000001 446477.439 -1.5170000000000001
85547.304 446600.36100000003 -0.714
85548.113 446591.43200000003 -0.521
85548.005 446598.507 -0.647
85549.898 446571.096 -0.544
85547.07 446626.517 -0.307
85545.676 446656.161 -0.153
85544.151 446686.545 -0.182
85543.87700000001 446700.483 -0.241
85543.066 446719.658 -0.158
85562.53600000001 446390.613 -1.24
85562.195 446402.733 -1.205
85544.198 446716.995 -0.128
85544.70300000001 446713.887 -0.146
85545.7 446701.076 -0.251
85569.109 446301.892 -0.899
85564.496 446387.091 -1.1320000000000001
85552.297 446603.94 -0.498
85548.082 446682.791 -0.132
85570.65000000001 446299.515 -0.861
85564.461 446413.44 -1.188
85565.835 446395.597 -1.118
85573.349 446275.674 -0.853
85553.861 446620.405 -0.202
85553.474 446630.798 -0.063
85566.75 446407.86 -1.164
85564.92 446445.3 -1.26
85566.61200000001 446421.92100000003 -1.308
85566.929 446422.994 -1.346
85565.265 446458.318 -1.274
85566.304 446445.498 -1.23
85557.386 446607.908 -0.268
85557.088 446618.53 -0.113
85577.821 446262.18 -1.083
85568.063 446438.161 -1.252
85568.675 446432.462 -1.227
85560.884 446575.407 -0.528
85558.591 446620.976 -0.066
85561.139 446582.701 -0.513
85561.891 446575.86 -0.503
85568.30500000001 446468.83 -1.112
85562.57 446575.531 -0.498
85562.91 446574.483 -0.515
85557.879 446667.719 -0.218
85559.431 446644.177 -0.128
85556.814 446694.782 -0.181
85581.196 446274.615 -1.0150000000000001
85574.978 446391.416 -1.114
85579.494 446315.739 -0.811
85573.046 446436.141 -1.256
85572.618 446449.044 -1.171
85573.549 446437.527 -1.25
85564.666 446599.359 -0.063
85563.937 446617.474 -0.161
85572.598 446468.68 -1.098
85573.145 446463.954 -1.243
85566.98 446577.87200000003 -0.445
85567.361 446576.815 -0.464
85566.52100000001 446597.618 -0.06
85566.194 446609.615 -0.163
85565.596 446625.253 -0.217
85564.633 446647.60000000003 -0.241
85562.563 446689.39900000003 -0.225
85583.921 446314.461 -0.726
85577.355 446437.324 -1.187
85575.955 446467.784 -1.198
85576.013 446471.884 -1.094
85568.383 446613.882 -0.263
85568.054 446625.715 -0.189
85572.106 446558.683 -0.51
85567.063 446654.571 -0.313
85565.077 446693.86 -0.456
85586.984 446308.423 -2.039
85568.618 446638.477 -0.269
85573.062 446563.496 -0.47700000000000004
85573.187 446565.963 -0.44
85576.095 446519.01300000004 -0.508
85580.603 446443.261 -1.218
85590.369 446271.142 -0.994
85570.784 446624.983 -0.038
